ply
format ascii 1.0
element vertex 1276
property float x
property float y
property float z
property uchar red
property uchar green
property uchar blue
end_header
0.236443 -0.453321 1.221755 107 92 75
0.237425 -0.453549 1.222369 106 90 74
0.238408 -0.453775 1.222977 106 90 73
0.239397 -0.454010 1.223611 107 92 75
0.240400 -0.454271 1.224314 108 93 76
0.241383 -0.454492 1.224911 109 93 76
0.242381 -0.454741 1.225580 107 90 74
0.243384 -0.454997 1.226270 106 91 74
0.244384 -0.455246 1.226941 105 90 73
0.245393 -0.455508 1.227648 105 90 75
0.246403 -0.455772 1.228360 107 92 77
0.247421 -0.456048 1.229104 107 92 77
0.248441 -0.456325 1.229850 106 91 76
0.249460 -0.456600 1.230591 106 91 76
0.250486 -0.456884 1.231356 106 91 76
0.251523 -0.457187 1.232173 106 91 76
0.252565 -0.457497 1.233009 106 92 77
0.253609 -0.457807 1.233845 105 91 76
0.254656 -0.458122 1.234693 104 90 75
0.255696 -0.458423 1.235504 103 89 74
0.256729 -0.458708 1.236271 103 89 74
0.257762 -0.458990 1.237034 105 91 76
0.258794 -0.459271 1.237789 105 91 76
0.259830 -0.459555 1.238555 106 92 77
0.260852 -0.459814 1.239252 106 93 76
0.261853 -0.460035 1.239848 106 93 75
0.262859 -0.460260 1.240457 102 89 71
0.263858 -0.460474 1.241033 101 88 70
0.264860 -0.460692 1.241619 101 88 70
0.265778 -0.460762 1.241808 100 87 69
0.266586 -0.460641 1.241482 99 86 68
0.267338 -0.460424 1.240898 98 85 67
0.268091 -0.460212 1.240326 99 86 68
0.268838 -0.459989 1.239724 104 91 71
0.269630 -0.459845 1.239338 106 93 74
0.270495 -0.459826 1.239286 106 93 75
0.271394 -0.459865 1.239392 105 92 74
0.272293 -0.459905 1.239500 102 91 73
0.273193 -0.459946 1.239608 101 90 72
0.274122 -0.460033 1.239843 101 90 72
0.275102 -0.460207 1.240314 101 90 72
0.276117 -0.460437 1.240933 102 91 73
0.277133 -0.460668 1.241556 100 89 71
0.278148 -0.460897 1.242171 99 88 70
0.279168 -0.461130 1.242800 99 88 70
0.280196 -0.461378 1.243467 100 89 73
0.281229 -0.461630 1.244147 100 90 74
0.282263 -0.461883 1.244830 101 91 74
0.283298 -0.462136 1.245512 102 92 75
0.284338 -0.462395 1.246211 103 93 76
0.285382 -0.462660 1.246924 103 93 77
0.286431 -0.462930 1.247651 103 93 77
0.287482 -0.463204 1.248389 101 92 75
0.288533 -0.463474 1.249116 101 92 76
0.289579 -0.463735 1.249821 101 91 77
0.290629 -0.464001 1.250538 100 90 76
0.291679 -0.464265 1.251250 101 91 77
0.292727 -0.464525 1.251951 100 91 77
0.293775 -0.464782 1.252644 102 92 78
0.294830 -0.465051 1.253368 102 93 78
0.295886 -0.465317 1.254085 102 93 79
0.296937 -0.465577 1.254784 101 93 79
0.297992 -0.465839 1.255492 100 92 78
0.299049 -0.466102 1.256201 99 91 77
0.300100 -0.466357 1.256887 100 92 78
0.301146 -0.466600 1.257542 102 94 80
0.302186 -0.466834 1.258173 99 90 77
0.303222 -0.467059 1.258780 96 87 76
0.304284 -0.467324 1.259494 102 93 82
0.305325 -0.467555 1.260117 102 93 84
0.306405 -0.467845 1.260897 97 88 79
0.307474 -0.468114 1.261624 95 88 78
0.308548 -0.468392 1.262373 96 89 80
0.309649 -0.468708 1.263223 101 94 84
0.310736 -0.469001 1.264014 100 93 83
0.311858 -0.469344 1.264937 100 93 83
0.312992 -0.469704 1.265908 99 92 82
0.314130 -0.470069 1.266891 98 91 84
0.315268 -0.470430 1.267866 99 92 85
0.316401 -0.470783 1.268817 96 89 82
0.317514 -0.471103 1.269678 94 87 80
0.318625 -0.471419 1.270530 96 89 82
0.319736 -0.471733 1.271377 99 91 84
0.320847 -0.472046 1.272219 97 89 82
0.321933 -0.472320 1.272960 96 88 81
0.322977 -0.472531 1.273527 98 89 82
0.324003 -0.472714 1.274021 100 91 84
0.325027 -0.472894 1.274506 98 89 82
0.326053 -0.473076 1.274996 100 91 84
0.327081 -0.473260 1.275491 100 91 84
0.328116 -0.473451 1.276007 99 90 81
0.329151 -0.473644 1.276526 102 93 84
0.330188 -0.473837 1.277047 103 94 85
0.331234 -0.474041 1.277597 102 93 84
0.332251 -0.474204 1.278036 103 93 84
0.333240 -0.474326 1.278364 102 91 83
0.334211 -0.474422 1.278623 102 91 82
0.335182 -0.474517 1.278879 101 91 80
0.336155 -0.474614 1.279142 101 90 80
0.337130 -0.474714 1.279410 102 90 80
0.338098 -0.474804 1.279653 103 91 81
0.339062 -0.474887 1.279877 105 93 81
0.340021 -0.474963 1.280082 102 90 78
0.340982 -0.475041 1.280291 103 91 79
0.341957 -0.475139 1.280555 106 93 82
0.342942 -0.475249 1.280851 106 94 83
0.343942 -0.475380 1.281206 105 93 82
0.344942 -0.475510 1.281557 104 92 81
0.345944 -0.475643 1.281913 103 91 79
0.346961 -0.475795 1.282324 102 90 79
0.348020 -0.476003 1.282883 102 90 79
0.349105 -0.476246 1.283540 100 89 78
0.350191 -0.476489 1.284195 99 88 77
0.351278 -0.476733 1.284851 98 88 76
0.352424 -0.477054 1.285718 98 88 77
0.353718 -0.477575 1.287121 100 90 78
0.355146 -0.478273 1.289003 101 91 78
0.356579 -0.478973 1.290890 102 92 79
0.358015 -0.479675 1.292780 101 91 78
0.359485 -0.480418 1.294784 99 89 76
0.360994 -0.481211 1.296919 97 87 76
0.362527 -0.482029 1.299126 96 86 75
0.364030 -0.482804 1.301215 97 87 75
0.365621 -0.483693 1.303609 103 93 80
0.367078 -0.484399 1.305514 106 96 83
0.368402 -0.484928 1.306937 104 94 81
0.369696 -0.485414 1.308248 101 91 78
0.370972 -0.485873 1.309487 101 91 78
0.372252 -0.486337 1.310737 103 93 80
0.373417 -0.486648 1.311575 106 96 83
0.374438 -0.486770 1.311904 102 92 79
0.375379 -0.486787 1.311950 100 88 76
0.376328 -0.486815 1.312026 102 90 78
0.377275 -0.486841 1.312095 104 92 80
0.378270 -0.486928 1.312329 103 92 80
0.379372 -0.487151 1.312931 104 92 80
0.380527 -0.487443 1.313717 105 93 81
0.381689 -0.487742 1.314521 103 91 80
0.382847 -0.488033 1.315307 101 89 79
0.384005 -0.488323 1.316089 102 91 80
0.385157 -0.488605 1.316848 102 91 80
0.386307 -0.488882 1.317594 101 90 78
0.387458 -0.489159 1.318342 101 90 78
0.388614 -0.489441 1.319102 103 93 81
0.389748 -0.489695 1.319785 102 92 82
0.390858 -0.489917 1.320383 101 91 81
0.391956 -0.490123 1.320938 99 89 79
0.393054 -0.490327 1.321490 101 91 81
0.394153 -0.490532 1.322043 102 92 83
0.395259 -0.490745 1.322616 100 91 82
0.396384 -0.490981 1.323253 97 90 80
0.397518 -0.491227 1.323915 96 90 80
0.398651 -0.491470 1.324569 98 92 82
0.399789 -0.491718 1.325238 101 95 85
0.400881 -0.491909 1.325752 102 96 86
0.401909 -0.492020 1.326052 100 94 84
0.402902 -0.492088 1.326234 99 94 84
0.403894 -0.492155 1.326415 98 93 83
0.404887 -0.492222 1.326598 98 93 83
0.405910 -0.492325 1.326875 98 93 83
0.406989 -0.492495 1.327334 97 92 82
0.408103 -0.492708 1.327906 101 96 86
0.409210 -0.492911 1.328453 102 97 87
0.410321 -0.493117 1.329010 98 95 85
0.411449 -0.493344 1.329620 95 93 84
0.412607 -0.493604 1.330323 95 91 83
0.413783 -0.493886 1.331082 96 91 82
0.414961 -0.494169 1.331844 97 92 83
0.416147 -0.494460 1.332628 97 95 84
0.417330 -0.494745 1.333396 96 93 83
0.418494 -0.495007 1.334103 95 92 81
0.419653 -0.495262 1.334790 97 93 83
0.420826 -0.495532 1.335516 101 97 87
0.421979 -0.495778 1.336181 100 96 87
0.423002 -0.495870 1.336429 96 92 82
0.423431 -0.495267 1.334802 95 91 80
0.423421 -0.494154 1.331805 95 91 81
0.423417 -0.493054 1.328838 95 91 81
0.423424 -0.491970 1.325918 96 92 82
0.423635 -0.491127 1.323647 97 92 82
0.424146 -0.490636 1.322323 95 90 80
0.425215 -0.490792 1.322742 94 89 79
0.426266 -0.490925 1.323102 94 89 79
0.427327 -0.491070 1.323493 97 92 82
0.428430 -0.491262 1.324009 100 95 85
0.429460 -0.491370 1.324301 102 96 86
0.430496 -0.491484 1.324607 99 93 83
0.431480 -0.491538 1.324754 96 90 80
0.432481 -0.491612 1.324953 95 89 79
0.433547 -0.491759 1.325349 95 89 80
0.434410 -0.491675 1.325122 96 90 80
0.435186 -0.491494 1.324635 98 92 82
0.435990 -0.491344 1.324231 102 96 84
0.436881 -0.491294 1.324095 103 97 86
0.437276 -0.490687 1.322459 104 98 87
0.437523 -0.489916 1.320383 103 97 85
0.437647 -0.489013 1.317948 102 95 84
0.437830 -0.488177 1.315696 101 94 83
0.438018 -0.487353 1.313473 102 94 84
0.438422 -0.486770 1.311903 101 94 84
0.439194 -0.486598 1.311440 101 93 82
0.440010 -0.486475 1.311108 100 93 82
0.440824 -0.486351 1.310774 100 93 81
0.441638 -0.486228 1.310441 100 94 82
0.442469 -0.486123 1.310159 104 97 85
0.443331 -0.486052 1.309969 109 100 89
0.444217 -0.486009 1.309851 108 99 88
0.445102 -0.485964 1.309730 106 97 86
0.445988 -0.485920 1.309612 106 97 86
0.446873 -0.485876 1.309494 106 97 86
0.447731 -0.485803 1.309296 108 99 88
0.448567 -0.485706 1.309036 105 96 85
0.449392 -0.485598 1.308744 100 92 80
0.450218 -0.485491 1.308456 101 92 81
0.451044 -0.485385 1.308169 104 95 84
0.451819 -0.485224 1.307736 106 98 86
0.452744 -0.485224 1.307737 103 95 84
0.494957 -0.489491 1.319237 102 95 89
0.495889 -0.489491 1.319237 102 95 89
0.497124 -0.489789 1.320039 101 94 88
0.498321 -0.490048 1.320739 101 94 89
0.499567 -0.490355 1.321566 96 89 85
0.500810 -0.490658 1.322382 94 87 82
0.502070 -0.490976 1.323238 98 91 86
0.503319 -0.491282 1.324062 101 94 89
0.504271 -0.491297 1.324104 100 93 88
0.505207 -0.491297 1.324104 99 92 87
0.506142 -0.491297 1.324104 98 91 86
0.533626 -0.504903 1.360775 102 95 91
0.534588 -0.504903 1.360775 100 93 89
0.535549 -0.504903 1.360775 100 93 89
0.538322 -0.506608 1.365367 102 95 91
0.541684 -0.508859 1.371435 101 94 90
0.545329 -0.511368 1.378197 100 93 89
0.549039 -0.513929 1.385100 101 94 89
0.552785 -0.516514 1.392067 102 95 90
0.556082 -0.518672 1.397883 101 94 89
0.558858 -0.520337 1.402370 103 96 91
0.561584 -0.521949 1.406713 105 99 94
0.564277 -0.523525 1.410962 105 99 94
0.566994 -0.525117 1.415253 103 97 92
0.569753 -0.526743 1.419635 101 95 90
0.572601 -0.528446 1.424224 101 95 90
0.575471 -0.530162 1.428850 102 95 91
0.578325 -0.531858 1.433421 102 95 91
0.581177 -0.533546 1.437971 102 95 89
0.584123 -0.535315 1.442737 101 94 88
0.587906 -0.537843 1.449550 100 94 88
0.592400 -0.541011 1.458088 100 93 87
0.596912 -0.544185 1.466644 98 91 85
0.601374 -0.547302 1.475044 96 91 84
0.605659 -0.550248 1.482984 96 91 84
0.609847 -0.553096 1.490659 96 91 84
0.613233 -0.555207 1.496349 98 93 86
0.617274 -0.557904 1.503617 97 91 85
0.622863 -0.561987 1.514622 97 91 85
0.653811 -0.587890 1.584433 98 92 85
0.662966 -0.595102 1.603872 97 91 85
0.668478 -0.599026 1.614446 97 91 85
0.672889 -0.601951 1.622329 96 90 84
0.676324 -0.603994 1.627837 96 90 83
0.679194 -0.605528 1.631969 95 89 83
0.682066 -0.607057 1.636091 96 91 84
0.684991 -0.608628 1.640324 97 92 85
0.687939 -0.610214 1.644600 97 91 85
0.690325 -0.611298 1.647522 96 90 85
0.692207 -0.611932 1.649231 95 89 85
0.694096 -0.612571 1.650951 94 88 84
0.696005 -0.613225 1.652713 93 87 83
0.697927 -0.613888 1.654500 92 89 84
0.698800 -0.613627 1.653799 93 90 85
0.698226 -0.612099 1.649680 92 89 84
0.697162 -0.610147 1.644419 91 88 83
0.696121 -0.608222 1.639231 91 88 83
0.695076 -0.606300 1.634051 92 89 84
0.694077 -0.604424 1.628995 93 90 85
0.695799 -0.604921 1.630333 93 90 85
0.699538 -0.607166 1.636383 92 89 84
0.703493 -0.609590 1.642917 94 91 88
0.707582 -0.612123 1.649744 95 92 89
0.711653 -0.614631 1.656505 94 91 88
0.717086 -0.618307 1.666411 92 90 87
0.718264 -0.618307 1.666411 91 89 86
0.698733 -0.564467 1.521305 39 35 46
0.699267 -0.564030 1.520129 38 34 45
0.700823 -0.564418 1.521174 37 33 46
0.700050 -0.562932 1.517169 36 32 45
0.699912 -0.561961 1.514551 36 31 46
0.698605 -0.560054 1.509413 32 27 43
0.697279 -0.558139 1.504250 31 26 42
0.695852 -0.556148 1.498886 32 27 43
0.695768 -0.555236 1.496428 29 24 41
0.696345 -0.554853 1.495395 27 22 40
0.696943 -0.554488 1.494410 23 18 36
0.697518 -0.554106 1.493380 23 18 36
0.698091 -0.553723 1.492348 23 18 37
0.698543 -0.553246 1.491063 22 17 36
0.698900 -0.552694 1.489577 21 16 35
0.699221 -0.552116 1.488019 19 14 33
0.699548 -0.551545 1.486480 19 14 33
0.699862 -0.550965 1.484915 20 15 34
0.700404 -0.550566 1.483841 20 15 34
0.701506 -0.550608 1.483953 20 15 34
0.702878 -0.550860 1.484634 20 15 34
0.704243 -0.551108 1.485301 19 14 33
0.705612 -0.551357 1.485972 18 13 32
0.707082 -0.551684 1.486855 17 12 31
0.709516 -0.552762 1.489759 18 13 32
0.713111 -0.554740 1.495090 17 12 31
0.716584 -0.556616 1.500146 17 12 31
0.719884 -0.558353 1.504829 17 12 31
0.722397 -0.559476 1.507853 16 11 30
0.724636 -0.560384 1.510300 15 10 29
0.724210 -0.559230 1.507191 16 11 30
0.723763 -0.558064 1.504048 16 11 30
0.723326 -0.556909 1.500935 16 11 30
0.724752 -0.557189 1.501691 16 11 30
0.726752 -0.557910 1.503634 16 11 30
0.729197 -0.558969 1.506489 16 11 30
0.731603 -0.559996 1.509255 16 11 30
0.733973 -0.560992 1.511940 17 12 31
0.736212 -0.561886 1.514348 16 11 30
0.738141 -0.562540 1.516112 16 11 30
0.739972 -0.563118 1.517669 16 11 30
0.741790 -0.563684 1.519194 16 11 30
0.743592 -0.564236 1.520684 16 11 30
0.745443 -0.564824 1.522268 15 10 29
0.748122 -0.566038 1.525538 14 9 28
0.752489 -0.568522 1.532233 12 7 26
0.756755 -0.570923 1.538705 13 8 27
0.760899 -0.573226 1.544912 13 8 27
0.764003 -0.574739 1.548990 14 9 28
0.766690 -0.575935 1.552213 15 10 29
0.767869 -0.575997 1.552381 15 10 29
0.769025 -0.576041 1.552499 15 10 29
0.770183 -0.576086 1.552620 14 9 28
0.771187 -0.576016 1.552432 14 9 28
0.772804 -0.576403 1.553476 14 9 28
0.774017 -0.576490 1.553708 14 9 28
0.775062 -0.576450 1.553602 14 9 28
0.775995 -0.576327 1.553270 15 10 29
0.778449 -0.577333 1.555981 15 10 29
0.781157 -0.578524 1.559191 16 11 30
0.784241 -0.579990 1.563142 14 9 28
0.787260 -0.581403 1.566952 15 10 29
0.790251 -0.582793 1.570695 16 11 30
0.792333 -0.583508 1.572624 16 11 30
0.791496 -0.582075 1.568761 16 11 30
0.790417 -0.580468 1.564431 15 10 29
0.789354 -0.578878 1.560144 14 9 28
0.788323 -0.577315 1.555932 15 10 28
0.787332 -0.575786 1.551812 16 11 29
0.786010 -0.574019 1.547050 15 10 28
0.784784 -0.572328 1.542493 15 10 28
0.783581 -0.570658 1.537990 16 11 29
0.782423 -0.569025 1.533590 17 12 30
0.781532 -0.567591 1.529725 17 12 30
0.780538 -0.566085 1.525668 17 12 30
0.781616 -0.566085 1.525667 17 12 30
0.782695 -0.566086 1.525668 18 13 31
0.789497 -0.559443 1.507766 29 24 33
0.788812 -0.558205 1.504428 33 28 37
0.786780 -0.556017 1.498532 35 30 39
0.784894 -0.553938 1.492930 37 32 41
0.782378 -0.551421 1.486146 38 33 41
0.779991 -0.549002 1.479625 37 32 38
0.777264 -0.546350 1.472477 38 33 39
0.775898 -0.544660 1.467924 42 35 39
0.777172 -0.544826 1.468371 42 36 39
0.778610 -0.545106 1.469127 41 34 38
0.780019 -0.545365 1.469824 41 34 38
0.781390 -0.545597 1.470448 44 37 41
0.782717 -0.545798 1.470990 49 42 45
0.783967 -0.545944 1.471385 48 41 44
0.784936 -0.545895 1.471252 50 43 46
0.786023 -0.545927 1.471339 50 43 46
0.787038 -0.545910 1.471292 50 43 45
0.790378 -0.547504 1.475587 51 45 45
0.794104 -0.549360 1.480589 54 48 48
0.799236 -0.552182 1.488197 56 50 50
0.804052 -0.554779 1.495196 51 45 45
0.808101 -0.556841 1.500752 53 47 47
0.812691 -0.559270 1.507298 56 50 50
0.818741 -0.562695 1.516531 59 53 53
0.825040 -0.566283 1.526200 61 55 55
0.831623 -0.570056 1.536369 60 54 54
0.838256 -0.573854 1.546604 61 55 54
0.845448 -0.578023 1.557841 63 57 57
0.851574 -0.581454 1.567087 66 60 59
0.856784 -0.584251 1.574627 65 59 58
0.862794 -0.587586 1.583615 62 56 55
0.868916 -0.590989 1.592786 58 52 52
0.874634 -0.594109 1.601193 58 52 52
0.879266 -0.596483 1.607592 65 59 59
0.883568 -0.598628 1.613373 69 63 63
0.887855 -0.600757 1.619111 69 63 63
0.892183 -0.602908 1.624909 70 62 61
0.896992 -0.605379 1.631568 69 62 61
0.902500 -0.608314 1.639477 64 56 55
0.908265 -0.611415 1.647835 66 58 57
0.914282 -0.614677 1.656627 71 63 61
0.920367 -0.617976 1.665520 75 68 64
0.926071 -0.621012 1.673701 74 67 63
0.932269 -0.624370 1.682752 70 63 59
0.938034 -0.627431 1.691001 73 66 62
0.943811 -0.630492 1.699250 73 66 62
0.949753 -0.633655 1.707775 73 66 62
0.955755 -0.636850 1.716386 73 66 62
0.962302 -0.640399 1.725951 75 68 64
0.968947 -0.644005 1.735670 76 69 65
0.975610 -0.647614 1.745395 78 71 66
0.982313 -0.651240 1.755168 79 72 66
0.989952 -0.655476 1.766585 79 72 66
0.998808 -0.660507 1.780145 78 70 64
1.008230 -0.665899 1.794676 78 70 64
1.018094 -0.671568 1.809956 76 69 63
1.028381 -0.677502 1.825949 74 67 61
1.036091 -0.681726 1.837334 75 68 62
1.042041 -0.684783 1.845571 79 72 66
1.048280 -0.688021 1.854300 85 78 72
1.054015 -0.690922 1.862116 84 77 71
1.059917 -0.693924 1.870208 84 77 71
1.065379 -0.696631 1.877503 83 76 70
1.070332 -0.698999 1.883886 83 76 70
1.075167 -0.701285 1.890046 83 76 70
1.080048 -0.703594 1.896269 84 77 71
1.084946 -0.705908 1.902507 86 79 73
1.089431 -0.707949 1.908008 89 82 76
1.093607 -0.709784 1.912953 88 81 75
1.098017 -0.711766 1.918295 84 77 71
1.102146 -0.713562 1.923134 84 77 71
1.106329 -0.715388 1.928054 84 77 71
1.110227 -0.717025 1.932468 85 78 72
1.113838 -0.718473 1.936370 88 81 75
1.117196 -0.719755 1.939825 87 80 75
1.120665 -0.721104 1.943462 82 76 72
1.124043 -0.722393 1.946934 84 77 73
1.127490 -0.723722 1.950516 87 81 77
1.130800 -0.724960 1.953853 88 82 78
1.134122 -0.726203 1.957203 88 82 78
1.137462 -0.727454 1.960576 88 81 77
1.140813 -0.728710 1.963959 87 81 77
1.144158 -0.729958 1.967323 88 81 77
1.147498 -0.731200 1.970672 87 81 77
1.150783 -0.732404 1.973917 85 79 75
1.154054 -0.733597 1.977130 85 79 75
1.157453 -0.734867 1.980555 87 81 77
1.161201 -0.736357 1.984569 90 84 80
1.165729 -0.738336 1.989904 89 84 79
1.170946 -0.740746 1.996399 89 83 79
1.176195 -0.743171 2.002935 90 84 80
1.181499 -0.745625 2.009549 92 86 82
1.187068 -0.748240 2.016595 95 89 85
1.193389 -0.751322 2.024902 93 87 83
1.200308 -0.754773 2.034203 93 87 83
1.207265 -0.758239 2.043545 93 87 83
1.214247 -0.761713 2.052908 93 87 83
1.221007 -0.765039 2.061872 93 87 83
1.227252 -0.768036 2.069948 94 88 84
1.233370 -0.770946 2.077790 98 92 88
1.239436 -0.773816 2.085526 93 87 83
1.245671 -0.776785 2.093527 87 81 77
1.250762 -0.779034 2.099589 86 80 76
1.256097 -0.781429 2.106044 93 87 83
1.261335 -0.783759 2.112324 101 95 91
1.266169 -0.785833 2.117912 108 102 98
1.270287 -0.787457 2.122291 108 102 98
1.274472 -0.789120 2.126771 100 94 90
1.280375 -0.791841 2.134106 85 79 75
1.284092 -0.793205 2.137781 83 77 74
1.288769 -0.795158 2.143045 90 84 81
1.293414 -0.797088 2.148246 96 89 87
1.296337 -0.797952 2.150575 97 90 88
1.298262 -0.798201 2.151246 98 91 89
1.299918 -0.798284 2.151470 98 91 90
1.301580 -0.798371 2.151705 98 91 89
1.303259 -0.798467 2.151964 97 90 89
1.304897 -0.798539 2.152157 96 89 88
1.306458 -0.798563 2.152223 95 87 86
1.307960 -0.798551 2.152191 96 88 87
1.309464 -0.798541 2.152163 96 88 87
1.310980 -0.798538 2.152154 96 88 87
1.312508 -0.798542 2.152167 97 89 88
1.314036 -0.798546 2.152177 98 90 90
1.315564 -0.798551 2.152189 98 90 90
1.317089 -0.798552 2.152194 101 93 92
1.318623 -0.798560 2.152214 102 94 93
1.320126 -0.798549 2.152184 101 93 93
1.321580 -0.798509 2.152076 100 92 92
1.323012 -0.798455 2.151930 100 92 92
1.324443 -0.798401 2.151784 100 92 92
1.325874 -0.798347 2.151639 101 93 94
1.327277 -0.798275 2.151447 103 95 96
1.328600 -0.798157 2.151127 104 96 97
1.329883 -0.798014 2.150743 100 94 94
1.331169 -0.797874 2.150364 100 94 94
1.332452 -0.797732 2.149982 100 94 94
1.333733 -0.797589 2.149597 101 95 95
1.335019 -0.797450 2.149222 101 95 95
1.336295 -0.797305 2.148831 100 94 94
1.337578 -0.797164 2.148452 99 93 93
1.338859 -0.797023 2.148071 101 95 95
1.340140 -0.796881 2.147690 103 97 97
1.341445 -0.796755 2.147349 100 94 94
1.342743 -0.796625 2.146998 98 92 92
1.344011 -0.796477 2.146599 99 93 93
1.345270 -0.796324 2.146187 101 94 95
1.346536 -0.796175 2.145787 102 96 98
1.347674 -0.795952 2.145185 102 96 98
1.349191 -0.795952 2.145185 102 98 100
0.134370 -0.469987 1.269089 104 94 73
0.135264 -0.469976 1.269058 107 97 76
0.136162 -0.469981 1.269071 104 94 73
0.137071 -0.470020 1.269177 103 93 72
0.137982 -0.470066 1.269303 106 95 75
0.138894 -0.470119 1.269444 108 98 77
0.139804 -0.470162 1.269560 109 99 78
0.140713 -0.470199 1.269661 108 96 76
0.141612 -0.470204 1.269675 106 93 73
0.142497 -0.470163 1.269564 105 93 72
0.143380 -0.470116 1.269438 104 94 72
0.144263 -0.470069 1.269310 104 93 71
0.145145 -0.470022 1.269182 104 93 72
0.146033 -0.469992 1.269102 106 95 73
0.146931 -0.469994 1.269107 107 96 74
0.147835 -0.470016 1.269167 107 96 74
0.148739 -0.470038 1.269225 105 95 72
0.149643 -0.470058 1.269281 105 94 71
0.150547 -0.470082 1.269345 104 93 69
0.151454 -0.470113 1.269428 104 93 69
0.152363 -0.470146 1.269519 106 96 72
0.153271 -0.470180 1.269610 106 95 71
0.154179 -0.470212 1.269697 106 96 72
0.155087 -0.470244 1.269782 105 94 70
0.155993 -0.470270 1.269852 103 92 68
0.156897 -0.470289 1.269904 101 91 67
0.157802 -0.470311 1.269962 103 93 69
0.158707 -0.470332 1.270021 101 91 67
0.159612 -0.470356 1.270085 101 90 66
0.160520 -0.470384 1.270159 101 90 66
0.161428 -0.470413 1.270239 101 89 66
0.162336 -0.470444 1.270322 100 88 65
0.163245 -0.470476 1.270409 103 90 67
0.164126 -0.470428 1.270279 104 90 68
0.164959 -0.470241 1.269776 103 89 67
0.165759 -0.469966 1.269033 102 88 66
0.166558 -0.469690 1.268287 103 89 67
0.167356 -0.469414 1.267542 103 89 68
0.168151 -0.469130 1.266775 103 88 68
0.168933 -0.468817 1.265929 106 89 70
0.169707 -0.468484 1.265030 106 90 70
0.170482 -0.468156 1.264143 106 89 70
0.171254 -0.467824 1.263249 104 88 69
0.172023 -0.467488 1.262341 102 87 68
0.172783 -0.467131 1.261377 105 90 71
0.173543 -0.466777 1.260419 107 92 73
0.174299 -0.466415 1.259442 108 93 74
0.175049 -0.466042 1.258437 110 97 77
0.175815 -0.465714 1.257551 109 96 76
0.176574 -0.465372 1.256628 104 93 73
0.177326 -0.465015 1.255662 99 89 68
0.178089 -0.464690 1.254785 97 87 66
0.178850 -0.464363 1.253902 99 89 68
0.179605 -0.464024 1.252987 99 89 68
0.180358 -0.463683 1.252066 101 92 71
0.181106 -0.463332 1.251117 103 94 73
0.181851 -0.462977 1.250158 102 93 72
0.182594 -0.462620 1.249196 99 91 70
0.183343 -0.462283 1.248286 97 90 68
0.184096 -0.461959 1.247411 100 93 70
0.184860 -0.461666 1.246619 101 94 72
0.185611 -0.461342 1.245744 98 91 69
0.186371 -0.461042 1.244934 98 91 69
0.187122 -0.460725 1.244079 98 91 69
0.187878 -0.460424 1.243266 98 91 69
0.188632 -0.460119 1.242444 98 91 69
0.189387 -0.459820 1.241634 100 93 71
0.190138 -0.459513 1.240807 101 94 72
0.190881 -0.459191 1.239936 103 96 74
0.191639 -0.458907 1.239170 102 95 73
0.192401 -0.458635 1.238434 101 92 71
0.193159 -0.458358 1.237688 100 91 70
0.193919 -0.458086 1.236954 101 92 71
0.194665 -0.457785 1.236139 102 93 72
0.195398 -0.457454 1.235246 102 93 72
0.196120 -0.457102 1.234296 101 91 71
0.196841 -0.456751 1.233348 100 90 70
0.197560 -0.456399 1.232397 101 90 70
0.198300 -0.456097 1.231581 101 91 70
0.199073 -0.455873 1.230976 102 92 72
0.199865 -0.455696 1.230499 105 95 76
0.200663 -0.455531 1.230055 105 94 76
0.201448 -0.455342 1.229544 100 88 70
0.202246 -0.455182 1.229111 102 89 71
0.203048 -0.455032 1.228705 102 89 71
0.203851 -0.454887 1.228313 103 90 72
0.204661 -0.454756 1.227962 102 89 71
0.205468 -0.454622 1.227598 100 87 69
0.206282 -0.454503 1.227279 98 85 67
0.207111 -0.454419 1.227051 96 83 65
0.207949 -0.454356 1.226879 96 83 65
0.208797 -0.454312 1.226762 96 83 65
0.209649 -0.454279 1.226673 98 85 67
0.210477 -0.454197 1.226451 101 88 70
0.211294 -0.454088 1.226158 102 89 71
0.212105 -0.453969 1.225836 102 89 71
0.212924 -0.453869 1.225566 105 92 74
0.213746 -0.453773 1.225307 106 93 75
0.214570 -0.453686 1.225070 107 94 76
0.215412 -0.453634 1.224931 106 93 74
0.216270 -0.453617 1.224886 106 93 74
0.217128 -0.453601 1.224842 106 93 74
0.217984 -0.453582 1.224791 104 91 71
0.218849 -0.453581 1.224787 102 89 69
0.219716 -0.453582 1.224790 103 90 70
0.220579 -0.453576 1.224775 103 90 70
0.221445 -0.453578 1.224779 102 89 69
0.222313 -0.453581 1.224789 98 85 66
0.223168 -0.453560 1.224731 102 89 69
0.224015 -0.453523 1.224632 101 88 68
0.224852 -0.453465 1.224474 99 86 68
0.225688 -0.453406 1.224315 102 89 71
0.226540 -0.453378 1.224240 106 93 75
0.227356 -0.453280 1.223976 106 93 75
0.228139 -0.453117 1.223536 106 93 75
0.228900 -0.452913 1.222983 107 94 76
0.229666 -0.452718 1.222457 108 93 76
0.230431 -0.452524 1.221933 108 93 76
0.231195 -0.452328 1.221405 107 92 75
0.231952 -0.452120 1.220843 104 89 72
0.232708 -0.451914 1.220286 101 86 69
0.233470 -0.451719 1.219760 102 87 70
0.234226 -0.451515 1.219208 105 90 73
0.235046 -0.451433 1.218989 106 91 74
0.235963 -0.451540 1.219278 106 90 74
0.236949 -0.451776 1.219914 106 88 73
0.237934 -0.452010 1.220545 105 87 72
0.238915 -0.452233 1.221148 102 87 70
0.239919 -0.452499 1.221867 105 90 73
0.240941 -0.452797 1.222670 108 90 74
0.241959 -0.453085 1.223448 105 87 71
0.243003 -0.453419 1.224350 106 90 74
0.244006 -0.453675 1.225041 107 92 75
0.245029 -0.453966 1.225828 106 91 76
0.246062 -0.454273 1.226655 106 91 76
0.247084 -0.454559 1.227429 106 91 76
0.248107 -0.454843 1.228195 106 91 76
0.249133 -0.455132 1.228976 106 91 76
0.250168 -0.455435 1.229795 106 91 76
0.251214 -0.455756 1.230660 106 92 77
0.252262 -0.456078 1.231530 107 93 78
0.253310 -0.456397 1.232392 106 92 77
0.254363 -0.456723 1.233273 102 88 73
0.255407 -0.457032 1.234106 101 87 72
0.256458 -0.457351 1.234968 104 90 75
0.257500 -0.457652 1.235780 106 92 77
0.258541 -0.457948 1.236580 105 91 76
0.259574 -0.458228 1.237335 102 88 73
0.260618 -0.458526 1.238140 105 92 74
0.261620 -0.458749 1.238744 104 91 73
0.262634 -0.458991 1.239397 101 88 70
0.263645 -0.459226 1.240031 101 88 70
0.264657 -0.459461 1.240666 101 88 70
0.265588 -0.459554 1.240916 101 88 70
0.266404 -0.459449 1.240632 103 90 72
0.267170 -0.459259 1.240119 103 90 72
0.267940 -0.459076 1.239625 103 90 71
0.268704 -0.458884 1.239109 105 92 72
0.269513 -0.458770 1.238799 105 92 73
0.270387 -0.458768 1.238795 103 90 72
0.271300 -0.458832 1.238966 103 91 73
0.272213 -0.458893 1.239132 102 91 73
0.273124 -0.458954 1.239295 102 91 73
0.274063 -0.459059 1.239580 102 91 73
0.275054 -0.459250 1.240096 103 92 74
0.276076 -0.459492 1.240749 103 92 74
0.277099 -0.459735 1.241405 102 91 73
0.278124 -0.459978 1.242061 101 90 72
0.279153 -0.460227 1.242734 101 90 72
0.280190 -0.460487 1.243437 100 90 72
0.281230 -0.460752 1.244151 100 90 73
0.282273 -0.461019 1.244872 101 91 73
0.283317 -0.461286 1.245593 102 92 75
0.284366 -0.461560 1.246333 104 94 77
0.285418 -0.461837 1.247081 104 94 78
0.286476 -0.462121 1.247848 104 95 78
0.287534 -0.462404 1.248613 103 94 77
0.288591 -0.462683 1.249366 102 92 76
0.289650 -0.462965 1.250128 98 88 74
0.290705 -0.463238 1.250865 95 85 71
0.291767 -0.463520 1.251627 96 86 72
0.292830 -0.463803 1.252391 97 87 73
0.293893 -0.464084 1.253148 96 86 73
0.294946 -0.464348 1.253860 96 86 73
0.296016 -0.464635 1.254637 101 92 78
0.297074 -0.464903 1.255361 103 93 80
0.298138 -0.465179 1.256106 102 93 81
0.299203 -0.465455 1.256850 101 91 80
0.300266 -0.465725 1.257579 102 92 81
0.301324 -0.465987 1.258286 105 95 83
0.302379 -0.466242 1.258975 104 94 83
0.303435 -0.466498 1.259666 102 92 81
0.304489 -0.466748 1.260342 101 92 81
0.305544 -0.467000 1.261022 100 91 82
0.306616 -0.467274 1.261763 98 89 80
0.307693 -0.467556 1.262525 99 89 81
0.308775 -0.467844 1.263301 100 91 82
0.309857 -0.468128 1.264069 101 92 84
0.310948 -0.468427 1.264876 101 91 83
0.312066 -0.468764 1.265785 101 91 83
0.313200 -0.469121 1.266751 101 91 83
0.314332 -0.469475 1.267706 100 91 83
0.315470 -0.469835 1.268679 99 91 83
0.316603 -0.470185 1.269624 99 90 83
0.317711 -0.470497 1.270467 98 89 82
0.318823 -0.470813 1.271319 100 91 83
0.319926 -0.471115 1.272134 102 92 84
0.321034 -0.471421 1.272961 99 89 82
0.322118 -0.471690 1.273688 97 87 80
0.323158 -0.471895 1.274240 99 89 82
0.324182 -0.472075 1.274725 101 91 85
0.325205 -0.472251 1.275202 101 90 84
0.326228 -0.472428 1.275678 101 90 83
0.327253 -0.472606 1.276161 100 90 82
0.328287 -0.472796 1.276675 99 88 80
0.329324 -0.472989 1.277196 99 88 80
0.330363 -0.473185 1.277723 99 88 80
0.331396 -0.473370 1.278224 101 90 81
0.332410 -0.473527 1.278646 102 91 83
0.333394 -0.473642 1.278958 102 91 83
0.334364 -0.473735 1.279209 103 91 83
0.335334 -0.473828 1.279460 103 91 83
0.336304 -0.473921 1.279710 103 91 83
0.337272 -0.474010 1.279952 104 92 82
0.338234 -0.474090 1.280168 105 93 83
0.339194 -0.474167 1.280375 104 92 82
0.340155 -0.474244 1.280584 104 92 82
0.341115 -0.474321 1.280791 106 91 82
0.342085 -0.474411 1.281035 108 93 84
0.343072 -0.474524 1.281338 106 93 84
0.344071 -0.474652 1.281685 105 93 83
0.345069 -0.474780 1.282030 105 93 83
0.346069 -0.474908 1.282375 104 92 82
0.347086 -0.475059 1.282784 103 91 81
0.348151 -0.475275 1.283366 103 91 81
0.349249 -0.475534 1.284068 102 91 80
0.350348 -0.475795 1.284772 101 91 80
0.351449 -0.476056 1.285477 101 90 79
0.352604 -0.476389 1.286374 99 89 78
0.353906 -0.476918 1.287803 99 89 78
0.355346 -0.477630 1.289727 99 89 77
0.356792 -0.478346 1.291660 99 89 77
0.358242 -0.479064 1.293600 99 89 77
0.359708 -0.479800 1.295587 99 89 77
0.361221 -0.480595 1.297733 97 87 76
0.362765 -0.481427 1.299979 98 88 77
0.364346 -0.482304 1.302347 102 92 80
0.365936 -0.483187 1.304732 106 96 83
0.367360 -0.483848 1.306516 106 96 83
0.368706 -0.484403 1.308016 104 94 81
0.370018 -0.484911 1.309386 100 90 77
0.371321 -0.485405 1.310722 98 88 75
0.372619 -0.485889 1.312029 99 89 76
0.373784 -0.486199 1.312864 101 91 78
0.374729 -0.486220 1.312921 101 91 78
0.375602 -0.486149 1.312730 102 92 79
0.376476 -0.486080 1.312543 104 94 81
0.377348 -0.486007 1.312347 103 93 80
0.378287 -0.486022 1.312388 100 90 77
0.379370 -0.486221 1.312925 104 93 81
0.380519 -0.486504 1.313688 107 95 83
0.381685 -0.486807 1.314507 102 91 79
0.382848 -0.487104 1.315310 100 88 76
0.384002 -0.487389 1.316077 101 90 77
0.385160 -0.487677 1.316856 102 92 79
0.386306 -0.487950 1.317592 103 93 80
0.387459 -0.488228 1.318345 104 94 81
0.388611 -0.488505 1.319092 104 94 81
0.389748 -0.488762 1.319785 102 92 81
0.390857 -0.488982 1.320381 101 91 80
0.391956 -0.489189 1.320939 98 89 78
0.393052 -0.489391 1.321485 99 90 79
0.394151 -0.489595 1.322036 100 91 81
0.395258 -0.489810 1.322616 100 91 81
0.396383 -0.490044 1.323248 99 92 82
0.397517 -0.490290 1.323911 99 93 83
0.398651 -0.490534 1.324570 98 92 82
0.399787 -0.490778 1.325231 99 93 83
0.400881 -0.490972 1.325753 101 95 85
0.401909 -0.491083 1.326053 100 94 84
0.402902 -0.491150 1.326235 98 92 82
0.403895 -0.491217 1.326416 97 92 82
0.404888 -0.491285 1.326598 97 92 82
0.405910 -0.491388 1.326876 96 91 81
0.406985 -0.491553 1.327321 95 90 80
0.408107 -0.491775 1.327922 100 95 85
0.409211 -0.491974 1.328458 102 97 87
0.410321 -0.492179 1.329012 99 94 85
0.411448 -0.492403 1.329618 97 92 84
0.412607 -0.492665 1.330324 98 93 84
0.413786 -0.492949 1.331093 100 95 85
0.414972 -0.493240 1.331877 102 97 87
0.416150 -0.493520 1.332635 102 100 89
0.417328 -0.493800 1.333390 100 97 86
0.418497 -0.494068 1.334112 98 95 84
0.419657 -0.494323 1.334801 99 95 84
0.420830 -0.494593 1.335532 103 98 89
0.421980 -0.494834 1.336183 104 99 90
0.423038 -0.494968 1.336543 98 93 83
0.423632 -0.494558 1.335436 96 91 81
0.423905 -0.493777 1.333327 97 92 82
0.424183 -0.493004 1.331241 97 92 82
0.424474 -0.492251 1.329206 97 92 82
0.424918 -0.491677 1.327657 98 93 83
0.425562 -0.491337 1.326738 95 90 80
0.426544 -0.491388 1.326877 94 89 79
0.427606 -0.491531 1.327262 95 90 80
0.428880 -0.491915 1.328300 99 94 84
0.429969 -0.492087 1.328764 100 95 85
0.431062 -0.492264 1.329241 101 96 88
0.432124 -0.492402 1.329616 99 94 86
0.433220 -0.492580 1.330095 99 94 86
0.434306 -0.492746 1.330543 99 94 86
0.435346 -0.492858 1.330847 98 92 85
0.436161 -0.492716 1.330463 96 89 82
0.437084 -0.492697 1.330410 97 90 82
0.437982 -0.492650 1.330283 100 94 84
0.438877 -0.492598 1.330143 102 96 86
0.439037 -0.491724 1.327785 105 99 89
0.439043 -0.490682 1.324971 104 98 88
0.438754 -0.489316 1.321281 102 96 86
0.438525 -0.488022 1.317787 102 96 86
0.438317 -0.486756 1.314370 102 96 86
0.438456 -0.485880 1.312005 102 96 86
0.439196 -0.485673 1.311444 101 95 84
0.440011 -0.485549 1.311111 100 94 82
0.440825 -0.485426 1.310777 99 93 81
0.441640 -0.485302 1.310444 100 94 82
0.442471 -0.485198 1.310163 103 97 85
0.443332 -0.485127 1.309970 107 101 89
0.444218 -0.485084 1.309854 106 100 88
0.445102 -0.485038 1.309730 103 96 84
0.445987 -0.484994 1.309612 98 92 80
0.446873 -0.484951 1.309494 98 92 80
0.447740 -0.484887 1.309322 103 97 85
0.448591 -0.484806 1.309105 102 96 84
0.449426 -0.484709 1.308843 98 92 80
0.450255 -0.484606 1.308562 99 93 81
0.451076 -0.484494 1.308262 101 95 83
0.451819 -0.484300 1.307737 102 96 84
0.452744 -0.484300 1.307737 101 95 83
0.494957 -0.488559 1.319237 104 99 92
0.495889 -0.488559 1.319237 103 98 91
0.497139 -0.488870 1.320079 101 96 89
0.498343 -0.489136 1.320796 100 94 88
0.499571 -0.489425 1.321577 99 92 86
0.500818 -0.489731 1.322403 97 90 84
0.502071 -0.490041 1.323240 97 90 84
0.503323 -0.490350 1.324072 98 91 85
0.504271 -0.490361 1.324104 98 91 85
0.505207 -0.490361 1.324104 97 90 84
0.506142 -0.490361 1.324104 98 91 85
0.533626 -0.503942 1.360775 101 94 90
0.534588 -0.503942 1.360775 100 93 89
0.535549 -0.503942 1.360775 101 94 90
0.538017 -0.505356 1.364594 102 95 91
0.541162 -0.507400 1.370114 100 93 89
0.544536 -0.509652 1.376195 97 90 86
0.548105 -0.512077 1.382744 102 95 91
0.551476 -0.514309 1.388771 102 95 91
0.554754 -0.516447 1.394543 101 94 90
0.557761 -0.518326 1.399616 102 95 91
0.560744 -0.520175 1.404610 102 95 91
0.563726 -0.522017 1.409584 101 94 90
0.566707 -0.523852 1.414539 100 93 89
0.569641 -0.525637 1.419357 100 94 90
0.572571 -0.527411 1.424149 100 94 90
0.575458 -0.529140 1.428818 101 95 91
0.578331 -0.530850 1.433435 100 94 90
0.581199 -0.532550 1.438025 101 95 90
0.584176 -0.534343 1.442866 100 94 89
0.587992 -0.536896 1.449760 99 93 89
0.592497 -0.540069 1.458327 98 92 88
0.597041 -0.543265 1.466959 97 91 87
0.601531 -0.546402 1.475429 95 89 85
0.605928 -0.549444 1.483643 95 89 84
0.610353 -0.552500 1.491895 96 91 84
0.614486 -0.555282 1.499407 96 91 84
0.619460 -0.558813 1.508942 97 92 85
0.625597 -0.563379 1.521271 96 91 84
0.633852 -0.569833 1.538699 97 91 84
0.648309 -0.581832 1.571098 98 91 85
0.658926 -0.590349 1.594098 98 91 85
0.666426 -0.596049 1.609489 98 92 86
0.672233 -0.600218 1.620747 98 91 85
0.676067 -0.602615 1.627219 98 91 85
0.679141 -0.604327 1.631841 98 91 85
0.682034 -0.605872 1.636013 97 91 85
0.684964 -0.607445 1.640261 97 92 85
0.687921 -0.609036 1.644557 96 91 86
0.690316 -0.610126 1.647500 97 91 87
0.692195 -0.610756 1.649202 96 90 86
0.694089 -0.611397 1.650933 94 88 84
0.696000 -0.612052 1.652700 90 84 80
0.697900 -0.612695 1.654437 89 83 79
0.698795 -0.612454 1.653787 90 84 80
0.698214 -0.610922 1.649651 90 86 81
0.697163 -0.608986 1.644422 90 87 82
0.696130 -0.607072 1.639253 90 87 82
0.695089 -0.605157 1.634082 90 87 82
0.694093 -0.603287 1.629032 90 87 82
0.695490 -0.603500 1.629609 89 86 81
0.698802 -0.605371 1.634662 87 84 79
0.702423 -0.607504 1.640420 89 86 82
0.706440 -0.609970 1.647081 89 86 82
0.710665 -0.612609 1.654206 89 86 83
0.717086 -0.617129 1.666411 90 88 85
0.718264 -0.617129 1.666411 90 88 85
0.693561 -0.559222 1.510047 32 28 40
0.694331 -0.558982 1.509399 31 28 40
0.695834 -0.559333 1.510346 33 29 44
0.696075 -0.558669 1.508554 33 30 44
0.696796 -0.558393 1.507807 32 28 44
0.696356 -0.557188 1.504554 28 23 39
0.695974 -0.556033 1.501436 28 23 40
0.695508 -0.554815 1.498146 28 23 41
0.695760 -0.554172 1.496409 26 21 40
0.696355 -0.553804 1.495416 24 19 38
0.696950 -0.553437 1.494425 23 18 37
0.697533 -0.553062 1.493413 22 17 37
0.698107 -0.552681 1.492383 21 16 36
0.698558 -0.552203 1.491094 21 16 36
0.698918 -0.551655 1.489614 20 15 35
0.699225 -0.551068 1.488028 19 14 34
0.699539 -0.550487 1.486459 19 13 34
0.699840 -0.549898 1.484869 18 13 33
0.700409 -0.549521 1.483851 18 13 33
0.701518 -0.549568 1.483978 18 12 33
0.702890 -0.549821 1.484660 19 14 33
0.704257 -0.550069 1.485330 19 14 33
0.705624 -0.550316 1.485998 18 13 32
0.707061 -0.550617 1.486812 18 13 32
0.709134 -0.551412 1.488958 17 12 31
0.711898 -0.552741 1.492546 17 12 31
0.714559 -0.553986 1.495907 17 12 31
0.717049 -0.555095 1.498902 17 12 31
0.718913 -0.555717 1.500581 15 10 29
0.720542 -0.556156 1.501767 15 10 29
0.720057 -0.554964 1.498547 16 11 30
0.719599 -0.553796 1.495394 16 11 30
0.719087 -0.552591 1.492140 14 9 28
0.720789 -0.553087 1.493479 14 9 28
0.723409 -0.554286 1.496717 14 9 28
0.726708 -0.556001 1.501348 14 9 28
0.729949 -0.557665 1.505843 15 10 29
0.733147 -0.559293 1.510239 15 10 29
0.736090 -0.560722 1.514097 14 9 28
0.738139 -0.561466 1.516107 14 9 28
0.739977 -0.562048 1.517678 13 8 27
0.741799 -0.562617 1.519214 14 9 28
0.743613 -0.563177 1.520727 14 9 28
0.745443 -0.563748 1.522269 14 9 28
0.747792 -0.564710 1.524865 14 9 28
0.751081 -0.566377 1.529367 14 9 28
0.754309 -0.567994 1.533732 14 9 28
0.757366 -0.569477 1.537737 14 9 28
0.759617 -0.570352 1.540099 14 9 28
0.761718 -0.571111 1.542149 13 8 27
0.762868 -0.571155 1.542269 14 9 28
0.764011 -0.571195 1.542377 15 10 29
0.765149 -0.571231 1.542473 15 10 29
0.766137 -0.571154 1.542266 13 8 27
0.767554 -0.571398 1.542924 14 9 28
0.768638 -0.571392 1.542910 14 9 28
0.769608 -0.571303 1.542668 15 10 29
0.770489 -0.571148 1.542249 15 10 29
0.773568 -0.572620 1.546225 14 9 28
0.777045 -0.574382 1.550983 15 10 29
0.781189 -0.576632 1.557058 15 10 29
0.785263 -0.578824 1.562976 15 10 29
0.789320 -0.580997 1.568844 16 11 30
0.792252 -0.582336 1.572461 16 11 30
0.791509 -0.580976 1.568788 16 11 29
0.790412 -0.579359 1.564421 15 10 29
0.789352 -0.577774 1.560140 14 9 28
0.788316 -0.576210 1.555920 15 10 28
0.787321 -0.574681 1.551790 15 10 28
0.785997 -0.572917 1.547026 15 10 28
0.784768 -0.571226 1.542461 15 10 28
0.783566 -0.569560 1.537961 16 11 28
0.782400 -0.567925 1.533546 16 11 28
0.781496 -0.566483 1.529654 16 11 28
0.780538 -0.565007 1.525668 17 12 28
0.781616 -0.565007 1.525667 18 13 30
0.781477 -0.552705 1.492450 34 30 37
0.780476 -0.551253 1.488529 36 32 39
0.778847 -0.549362 1.483423 38 34 41
0.777379 -0.547589 1.478635 42 37 45
0.775927 -0.545833 1.473892 44 39 46
0.774314 -0.543968 1.468856 44 39 45
0.772640 -0.542065 1.463717 43 38 44
0.772137 -0.540988 1.460809 40 36 39
0.773540 -0.541247 1.461509 41 36 39
0.775196 -0.541682 1.462683 42 36 39
0.776833 -0.542103 1.463820 44 37 41
0.778291 -0.542398 1.464617 48 41 45
0.779706 -0.542663 1.465332 53 46 49
0.781166 -0.542957 1.466128 54 47 50
0.782640 -0.543261 1.466948 55 48 51
0.784416 -0.543773 1.468330 52 45 48
0.786081 -0.544208 1.469504 49 42 43
0.790596 -0.546611 1.475993 49 42 42
0.796198 -0.549759 1.484493 54 47 47
0.801297 -0.552551 1.492033 58 52 52
0.806033 -0.555087 1.498880 58 52 52
0.810069 -0.557133 1.504407 60 54 54
0.814966 -0.559767 1.511517 61 55 55
0.822701 -0.564340 1.523866 62 56 56
0.831063 -0.569331 1.537343 63 57 57
0.839825 -0.574582 1.551522 63 57 57
0.848699 -0.579896 1.565871 63 57 55
0.856928 -0.584755 1.578993 65 59 57
0.862980 -0.588120 1.588078 65 59 57
0.868055 -0.590810 1.595342 64 58 57
0.873437 -0.593701 1.603150 62 56 55
0.878427 -0.596320 1.610220 60 54 54
0.883373 -0.598901 1.617191 59 53 53
0.887860 -0.601165 1.623304 66 60 60
0.892117 -0.603268 1.628983 70 64 64
0.896314 -0.605325 1.634538 71 65 64
0.900559 -0.607409 1.640165 70 64 62
0.905185 -0.609744 1.646470 69 63 61
0.910379 -0.612455 1.653790 68 60 59
0.915887 -0.615371 1.661664 67 59 58
0.922109 -0.618758 1.670809 71 63 61
0.927969 -0.621894 1.679276 76 69 65
0.933012 -0.624475 1.686246 75 68 64
0.939489 -0.628007 1.695785 68 61 57
0.944755 -0.630723 1.703117 71 65 61
0.950431 -0.633704 1.711169 71 64 60
0.956032 -0.636629 1.719064 71 65 61
0.961969 -0.639769 1.727544 73 66 62
0.968657 -0.643400 1.737350 74 68 63
0.975800 -0.647325 1.747946 75 69 64
0.982959 -0.651249 1.758543 77 71 64
0.990224 -0.655234 1.769303 78 72 65
0.997776 -0.659398 1.780547 78 71 65
1.005697 -0.663795 1.792422 77 70 64
1.013959 -0.668406 1.804873 79 72 66
1.022801 -0.673388 1.818325 83 76 70
1.030936 -0.677892 1.830487 81 74 68
1.038262 -0.681853 1.841184 78 71 65
1.044337 -0.684984 1.849638 80 73 67
1.050447 -0.688130 1.858133 86 79 73
1.056178 -0.691021 1.865938 86 79 73
1.062050 -0.693996 1.873972 85 78 72
1.067512 -0.696696 1.881263 84 77 71
1.072473 -0.699063 1.887654 84 77 71
1.077273 -0.701320 1.893748 84 77 71
1.082110 -0.703594 1.899890 84 77 71
1.086956 -0.705869 1.906032 84 77 71
1.091643 -0.708035 1.911882 83 76 70
1.095979 -0.709969 1.917102 80 73 67
1.099854 -0.711599 1.921505 81 74 68
1.104063 -0.713441 1.926479 84 79 72
1.108242 -0.715260 1.931389 85 80 73
1.112070 -0.716847 1.935676 85 79 74
1.115626 -0.718255 1.939479 88 81 77
1.118956 -0.719516 1.942881 87 81 77
1.122348 -0.720812 1.946381 85 78 74
1.125720 -0.722092 1.949839 84 78 74
1.129070 -0.723356 1.953250 84 78 74
1.132418 -0.724615 1.956650 86 80 76
1.135725 -0.725844 1.959969 86 80 76
1.139053 -0.727084 1.963317 86 80 76
1.142359 -0.728307 1.966621 86 80 76
1.145688 -0.729542 1.969954 86 80 76
1.148993 -0.730758 1.973240 87 81 77
1.152417 -0.732047 1.976719 89 84 80
1.155830 -0.733326 1.980173 91 87 82
1.159130 -0.734530 1.983425 91 88 83
1.162554 -0.735810 1.986880 90 87 82
1.167053 -0.737767 1.992163 87 84 79
1.172319 -0.740202 1.998740 88 83 79
1.177556 -0.742614 2.005253 89 83 79
1.182780 -0.745012 2.011728 90 84 80
1.188322 -0.747604 2.018726 91 86 82
1.194709 -0.750720 2.027142 92 86 82
1.201626 -0.754162 2.036437 93 87 84
1.208479 -0.757556 2.045600 94 88 84
1.215425 -0.760999 2.054898 94 88 84
1.222163 -0.764305 2.063825 94 88 85
1.228408 -0.767295 2.071897 94 88 85
1.234483 -0.770171 2.079664 97 91 88
1.240676 -0.773114 2.087611 93 87 84
1.246592 -0.775878 2.095074 91 85 83
1.252374 -0.778552 2.102294 94 88 86
1.257679 -0.780923 2.108697 99 93 90
1.262199 -0.782802 2.113770 101 95 93
1.266827 -0.784743 2.119012 102 96 94
1.271626 -0.786785 2.124527 100 94 92
1.276430 -0.788827 2.130039 93 87 85
1.281103 -0.790781 2.135318 85 79 77
1.284863 -0.792170 2.139066 85 79 77
1.289809 -0.794284 2.144776 94 88 86
1.294325 -0.796129 2.149758 100 93 92
1.297108 -0.796906 2.151855 101 93 92
1.299014 -0.797142 2.152493 97 89 88
1.300657 -0.797216 2.152694 96 88 87
1.302302 -0.797292 2.152897 95 87 86
1.303934 -0.797359 2.153079 96 88 88
1.305533 -0.797406 2.153207 97 89 90
1.307062 -0.797410 2.153218 98 90 90
1.308553 -0.797392 2.153167 97 89 89
1.310065 -0.797385 2.153150 98 90 91
1.311568 -0.797375 2.153121 97 89 90
1.313071 -0.797363 2.153090 97 89 90
1.314581 -0.797356 2.153069 97 89 90
1.316091 -0.797349 2.153051 96 88 89
1.317597 -0.797339 2.153023 101 93 94
1.319116 -0.797337 2.153019 102 94 95
1.320594 -0.797311 2.152948 101 93 94
1.322035 -0.797262 2.152816 100 92 93
1.323448 -0.797196 2.152640 100 92 93
1.324862 -0.797131 2.152464 101 93 94
1.326275 -0.797067 2.152290 101 93 94
1.327668 -0.796989 2.152080 102 94 95
1.328978 -0.796863 2.151739 102 94 95
1.330245 -0.796711 2.151328 99 93 93
1.331512 -0.796559 2.150918 100 94 94
1.332780 -0.796408 2.150512 101 95 95
1.334045 -0.796256 2.150100 101 95 95
1.335313 -0.796106 2.149695 101 95 95
1.336577 -0.795954 2.149285 101 95 95
1.337833 -0.795797 2.148862 100 94 94
1.339095 -0.795644 2.148449 102 96 96
1.340360 -0.795494 2.148043 104 98 98
1.341657 -0.795363 2.147689 99 93 93
1.342967 -0.795240 2.147356 97 91 91
1.344236 -0.795092 2.146958 98 92 92
1.345464 -0.794922 2.146497 101 94 96
1.346683 -0.794746 2.146022 103 96 99
1.347674 -0.794436 2.145185 104 97 100
1.349191 -0.794436 2.145185 103 97 100
0.134336 -0.468972 1.268769 103 93 72
0.135235 -0.468978 1.268784 110 100 79
0.136132 -0.468978 1.268786 106 96 75
0.137038 -0.469012 1.268877 105 93 73
0.137945 -0.469045 1.268967 103 90 70
0.138852 -0.469079 1.269059 102 89 69
0.139766 -0.469135 1.269209 104 91 71
0.140677 -0.469181 1.269335 104 90 71
0.141578 -0.469194 1.269370 105 90 71
0.142463 -0.469156 1.269266 106 92 72
0.143346 -0.469110 1.269141 105 92 71
0.144230 -0.469064 1.269018 105 92 71
0.145112 -0.469018 1.268895 107 94 72
0.146002 -0.468993 1.268827 108 94 73
0.146899 -0.468995 1.268833 108 95 74
0.147802 -0.469016 1.268888 108 95 73
0.148706 -0.469037 1.268945 107 95 71
0.149610 -0.469060 1.269008 106 94 70
0.150516 -0.469086 1.269078 105 93 69
0.151422 -0.469115 1.269156 105 93 69
0.152331 -0.469152 1.269257 109 97 73
0.153239 -0.469185 1.269346 109 97 73
0.154146 -0.469215 1.269426 111 99 75
0.155053 -0.469243 1.269502 110 98 74
0.155960 -0.469273 1.269584 104 92 68
0.156864 -0.469292 1.269635 103 91 67
0.157769 -0.469315 1.269697 105 93 69
0.158674 -0.469337 1.269757 102 90 66
0.159579 -0.469361 1.269822 102 89 66
0.160487 -0.469389 1.269899 101 88 64
0.161395 -0.469419 1.269979 99 86 62
0.162301 -0.469444 1.270047 95 83 59
0.163211 -0.469481 1.270147 99 86 63
0.164095 -0.469441 1.270037 103 89 66
0.164928 -0.469255 1.269535 101 87 64
0.165728 -0.468982 1.268797 99 85 62
0.166530 -0.468715 1.268075 100 86 64
0.167330 -0.468446 1.267345 101 87 66
0.168124 -0.468160 1.266573 105 90 69
0.168899 -0.467829 1.265676 109 92 72
0.169670 -0.467488 1.264755 108 91 72
0.170440 -0.467147 1.263831 107 90 71
0.171201 -0.466787 1.262859 103 86 67
0.171968 -0.466447 1.261939 102 86 67
0.172722 -0.466074 1.260929 105 89 70
0.173476 -0.465704 1.259929 104 89 70
0.174227 -0.465333 1.258923 105 90 71
0.174977 -0.464962 1.257921 104 91 71
0.175715 -0.464562 1.256837 101 88 68
0.176474 -0.464222 1.255917 101 89 69
0.177232 -0.463881 1.254996 99 87 66
0.177992 -0.463549 1.254098 98 87 66
0.178750 -0.463218 1.253203 97 87 66
0.179503 -0.462876 1.252277 95 86 65
0.180244 -0.462505 1.251275 94 85 64
0.180965 -0.462089 1.250147 98 89 68
0.181697 -0.461702 1.249101 101 92 71
0.182429 -0.461322 1.248072 99 91 70
0.183168 -0.460961 1.247097 98 91 69
0.183915 -0.460623 1.246181 98 91 69
0.184667 -0.460303 1.245316 97 90 68
0.185416 -0.459976 1.244430 97 90 68
0.186168 -0.459662 1.243582 98 91 69
0.186915 -0.459338 1.242706 100 93 71
0.187671 -0.459037 1.241891 100 93 71
0.188411 -0.458701 1.240983 97 90 68
0.189156 -0.458381 1.240116 95 88 66
0.189905 -0.458075 1.239288 98 91 69
0.190640 -0.457737 1.238374 104 97 75
0.191397 -0.457453 1.237604 103 96 74
0.192152 -0.457167 1.236832 103 94 73
0.192910 -0.456893 1.236091 101 92 71
0.193657 -0.456594 1.235283 102 93 72
0.194392 -0.456271 1.234407 104 95 74
0.195123 -0.455938 1.233507 106 96 77
0.195841 -0.455581 1.232541 103 92 74
0.196560 -0.455228 1.231585 101 90 72
0.197276 -0.454871 1.230621 100 90 72
0.198011 -0.454562 1.229784 100 90 72
0.198779 -0.454331 1.229159 101 90 72
0.199566 -0.454146 1.228659 103 92 74
0.200353 -0.453960 1.228156 103 92 74
0.201135 -0.453767 1.227633 100 89 71
0.201929 -0.453600 1.227181 102 90 72
0.202727 -0.453444 1.226760 102 89 71
0.203529 -0.453300 1.226369 101 89 71
0.204330 -0.453153 1.225973 101 89 71
0.205134 -0.453017 1.225604 99 87 69
0.205949 -0.452904 1.225298 98 86 68
0.206785 -0.452838 1.225120 97 84 66
0.207650 -0.452835 1.225113 93 81 63
0.208508 -0.452818 1.225066 98 85 68
0.209312 -0.452683 1.224701 104 91 74
0.210135 -0.452591 1.224452 105 92 74
0.210946 -0.452475 1.224137 104 91 73
0.211749 -0.452342 1.223779 104 91 73
0.212556 -0.452219 1.223445 104 91 73
0.213362 -0.452095 1.223109 104 91 73
0.214180 -0.451996 1.222842 104 91 73
0.215018 -0.451941 1.222694 104 91 73
0.215871 -0.451916 1.222626 105 92 73
0.216720 -0.451886 1.222545 105 92 73
0.217570 -0.451856 1.222463 105 92 72
0.218421 -0.451829 1.222391 104 91 71
0.219275 -0.451809 1.222337 105 92 72
0.220139 -0.451808 1.222334 105 92 72
0.221001 -0.451804 1.222323 103 90 70
0.221865 -0.451804 1.222323 103 90 70
0.222707 -0.451761 1.222206 103 90 72
0.223567 -0.451752 1.222183 101 88 70
0.224414 -0.451718 1.222089 100 87 69
0.225234 -0.451630 1.221851 102 89 71
0.226066 -0.451568 1.221683 103 90 72
0.226887 -0.451483 1.221454 104 91 73
0.227677 -0.451338 1.221061 105 92 74
0.228446 -0.451151 1.220556 107 94 76
0.229205 -0.450948 1.220006 107 93 76
0.229962 -0.450741 1.219447 107 92 75
0.230728 -0.450554 1.218940 107 92 75
0.231479 -0.450337 1.218354 105 90 73
0.232241 -0.450146 1.217838 105 90 73
0.232993 -0.449936 1.217270 106 91 74
0.233758 -0.449753 1.216773 105 90 73
0.234565 -0.449651 1.216496 104 89 72
0.235493 -0.449780 1.216846 105 89 72
0.236476 -0.450015 1.217482 106 88 73
0.237471 -0.450270 1.218172 105 87 73
0.238466 -0.450522 1.218854 104 89 72
0.239473 -0.450796 1.219597 106 91 74
0.240502 -0.451110 1.220444 106 88 72
0.241537 -0.451432 1.221316 100 82 66
0.242619 -0.451838 1.222414 104 89 72
